# .PCD v0.7 - Point Cloud Data file format
VERSION 0.7
FIELDS x y z
SIZE 4 4 4
TYPE F F F
COUNT 1 1 1
WIDTH 128
HEIGHT 1
VIEWPOINT 0 0 0 1 0 0 0
POINTS 128
DATA ascii
0.97500002 10.425 1.275
0.92500001 10.475 1.275
0.97500002 10.475 1.275
1.025 10.525 1.275
1.075 10.525 1.275
1.075 10.575 1.275
1.075 10.625 1.275
1.225 10.825 1.325
1.275 10.825 1.325
1.225 10.875 1.325
1.275 10.875 1.325
1.175 10.425 1.375
1.175 10.475 1.375
1.125 10.525 1.375
1.175 10.525 1.375
1.125 10.575 1.375
1.175 10.575 1.375
1.125 10.625 1.375
1.175 10.625 1.375
1.225 10.625 1.375
1.075 10.675 1.375
1.125 10.675 1.375
1.175 10.675 1.375
1.225 10.675 1.375
1.175 10.725 1.375
1.225 10.725 1.375
1.175 10.775 1.375
1.225 10.775 1.375
1.175 10.825 1.375
1.025 10.875 1.375
1.325 10.775 1.425
1.275 10.825 1.425
1.325 10.825 1.425
1.275 10.875 1.425
1.325 10.875 1.425
1.275 10.925 1.425
1.325 10.925 1.425
1.375 10.925 1.425
1.225 10.975 1.425
1.275 10.975 1.425
1.325 10.975 1.425
1.375 10.975 1.425
1.225 11.025 1.425
1.275 11.025 1.425
1.325 11.025 1.425
1.375 11.025 1.425
1.425 11.025 1.425
1.275 11.075 1.425
1.325 11.075 1.425
1.375 11.075 1.425
1.425 11.075 1.425
1.325 11.125 1.425
1.375 11.125 1.425
1.425 11.125 1.425
1.375 11.175 1.425
1.425 11.175 1.425
1.375 10.275 1.475
1.525 10.325 1.475
1.275 10.375 1.475
1.325 10.375 1.475
1.225 10.425 1.475
1.275 10.425 1.475
1.325 10.425 1.475
1.175 10.475 1.475
1.225 10.475 1.475
1.275 10.475 1.475
1.175 10.525 1.475
1.225 10.525 1.475
1.275 10.525 1.475
1.225 10.575 1.475
1.275 10.575 1.475
1.225 10.625 1.475
0.97500002 10.675 1.475
1.225 10.675 1.475
0.97500002 10.725 1.475
1.225 10.725 1.475
1.175 10.775 1.475
1.075 10.825 1.475
1.125 10.825 1.475
1.175 10.825 1.475
1.125 11.025 1.475
1.475 10.275 1.525
1.525 10.275 1.525
1.425 10.325 1.525
1.475 10.325 1.525
1.525 10.325 1.525
1.425 10.375 1.525
1.475 10.375 1.525
1.375 10.425 1.525
1.425 10.425 1.525
1.475 10.425 1.525
1.425 10.475 1.525
1.475 10.475 1.525
1.275 10.525 1.525
1.325 10.525 1.525
1.375 10.525 1.525
1.425 10.525 1.525
1.225 10.575 1.525
1.275 10.575 1.525
1.325 10.575 1.525
1.375 10.575 1.525
1.425 10.575 1.525
1.225 10.625 1.525
1.275 10.625 1.525
1.325 10.625 1.525
1.375 10.625 1.525
1.275 10.675 1.525
1.325 10.675 1.525
1.375 10.675 1.525
1.275 10.725 1.525
1.325 10.725 1.525
1.375 10.725 1.525
1.275 10.775 1.525
1.325 10.775 1.525
1.375 10.775 1.525
1.225 10.825 1.525
1.275 10.825 1.525
1.325 10.825 1.525
1.125 10.875 1.525
1.175 10.875 1.525
1.125 10.925 1.525
1.125 10.975 1.525
1.125 11.025 1.525
1.475 11.025 1.525
1.125 11.175 1.525
1.175 11.175 1.525
1.125 11.225 1.525
1.175 11.225 1.525
